268.2646431157841,135.53210296739536,426.38978252954655,0.31256162312289903,-0.0005618599638082375,-0.9498973186951101
268.8007896420425,131.2903538452074,426.5657770548327,0.3033685403357242,-0.000531851819602111,-0.9528731530839842
269.34755304744897,127.0498551691104,426.7391703502321,0.2939058552884134,-0.00050100813014835,-0.9558342414969447
269.9047561229198,122.81059651563527,426.9095606793127,0.2841729521834163,-0.00046933031457929757,-0.9587729204438438
270.4722049564219,118.5725597279299,427.07654268329344,0.2741698343849083,-0.00043682187244130176,-0.9616811899481054
271.0496869063467,114.33572749834548,427.2397081330426,0.2638972061493453,-0.0004034886337917334,-0.9645507253553296
271.6369705878757,110.1000770063755,427.3986474019606,0.25335651999144077,-0.0003693388950494514,-0.9673729050198827
272.2338034863633,105.86559132297651,427.5529503865783,0.2425500666175073,-0.000334383690393739,-0.9701388320087957
272.83991333423023,101.6322442029873,427.70220855105134,0.23148099682492965,-0.00029863684021870463,-0.9728393798181563
273.45500714645203,97.40000289616182,427.84601638199354,0.22015338341662838,-0.00026211512716128405,-0.975465232115359
274.0787693471041,93.16883754561661,427.9839727613611,0.20857229817509962,-0.00022483851794332835,-0.9780069252728214
274.71086256382597,88.93871292689221,428.1156830614095,0.1967438367389027,-0.00018683021479218043,-0.9804549086009652
275.3509273840706,84.70958860865079,428.2407610203881,0.18467515786866004,-0.00014811675149780472,-0.9827996052744493
275.99858266738084,80.48141651194578,428.35883076767243,0.17237450687517336,-0.00010872803685346182,-0.9850314804907275
276.65342486718004,76.2541460911728,428.46952869116797,0.1598512514655736,-6.869743635546357e-05,-0.9871411108273995
277.3150267584864,72.02773413101232,428.57250529318935,0.14711592237395266,-2.8061867355729426e-05,-0.9891192570143362
277.98294073311763,67.80212649638554,428.66742778608125,0.13418015808012598,1.3138412935316295e-05,-0.9909569541634867
278.65669693649653,63.57727443069257,428.75398180349816,0.12105673919836424,5.485973319059793e-05,-0.9926455877527833
279.3358086693204,59.35310633110191,428.8318740510435,0.10775947213884407,9.705541317330225e-05,-0.9941769896475198
280.0197675028344,55.1295654125384,428.9008335385785,0.09430326274916065,0.00013967556397568535,-0.9955435073996515
280.7080491446353,50.906581328413836,428.9606140656312,0.08070396990758569,0.0001826675861116002,-0.9967380979343112
281.4001103682455,46.684098529170285,429.01099560747053,0.06697842382241385,0.0002259761432999333,-0.9977543984754204
282.0953974194887,42.462035405391134,429.05178652475564,0.05314420727864536,0.0002695438827935828,-0.9985868117388792
282.7933409359005,38.24032704247708,429.08282451941596,0.03921969417503667,0.0003133113397831261,-0.9992305626955278
283.49336077736297,34.018908297496864,429.10397820886135,0.025223883042820607,0.0003572174856069377,-0.9996817634226954
284.1948706908752,29.797699133166304,429.1151482371036,0.011176225185829156,0.00040120028647999055,-0.9999374635590598
284.8972773517766,25.576624516316087,429.1162679609919,-0.002903441084703035,0.00044519692440729076,-0.9999956859054773
285.5999839400477,21.35560740493719,429.10730406832704,-0.01699505155318618,0.0004891443123547556,-0.999855454033505
286.30239208093457,17.134571929614822,429.088256881051,-0.031078447621251976,0.0005329795110966061,-0.9995168062750589
287.0039037331503,12.913447025529706,429.05916042834406,-0.04513350805786598,0.0005766401414859544,-0.9989807975814841
287.703925912997,8.692152931939802,429.0200821120629,-0.05914033696624494,0.0006200649655317965,-0.9982494858816396
288.40187016236985,4.470619034750769,428.9711223063094,-0.07307934393881997,0.000663194126855633,-0.9973259094513797
289.0971564926886,0.24877433343527855,428.91241352882616,-0.08693140967279595,0.0007059696514213444,-0.9962140490974577
289.78921677634645,-3.973459572634681,428.8441192718666,-0.10067803429397527,0.0007483358885702609,-0.9949187772899349
290.47749416306203,-8.196152150573653,428.76643296446616,-0.11430139919579553,0.0007902396805636767,-0.9934458040895491
291.16144446290997,-12.419360216755194,428.67957666976895,-0.12778446010267064,0.0008316306253771426,-0.9918016133011539
291.84054290024943,-16.643158626054685,428.5837988238449,-0.14111113620674523,0.0008724616300026392,-0.9899933767703427
292.51428188926315,-20.86761710950543,428.4793728234355,-0.15426631138429928,0.0009126888827901574,-0.9880288822554154
293.1821709414212,-25.092790918602873,428.36659539651293,-0.16723586818802375,0.0009522719256961525,-0.9859164556744032
293.8437390000884,-29.318727832372872,428.2457844965211,-0.18000675895478785,0.0009911738383580429,-0.983664873981487
294.49854060835435,-33.54550179430407,428.1172762092982,-0.19256713899234823,0.0010293616084047581,-0.9812832605292829
295.14614752980043,-37.77315476840431,427.98142430256183,-0.2049062093666647,0.001066805617038747,-0.978781031328642
295.7861548636958,-42.00173229768376,427.83859712321697,-0.2170143304976453,0.001103479949873343,-0.9761677943318242
296.41818184277855,-46.231287164948355,427.68917530183097,-0.2288830231588527,0.0011393623642222373,-0.9734532672722749
297.0418676670182,-50.46185083203653,427.53355068267524,-0.24050486902218843,0.0011744339540192541,-0.9706472215390654
297.65687602321094,-54.69346389015675,427.37212326462947,-0.2518735680820698,0.001208679290726385,-0.9677593940623769
298.26289363081685,-58.92616830238774,427.20529950010894,-0.26298387719248506,0.0012420862058060513,-0.9647994286682933
298.85962835751604,-63.15999697177955,427.03349086638065,-0.2738315371957276,0.001274645541637619,-0.9617768267720782
299.4468075156067,-67.39496455180199,426.85711255910786,-0.28441320108148754,0.0013063509085029317,-0.95870090460888
300.0241822044448,-71.63110284155948,426.67658042048595,-0.29472646820749643,0.0013371987614362367,-0.9555807243961171
300.591522691431,-75.86843317292374,426.4923105549969,-0.3047697541705659,0.0013671879863686846,-0.952425077231707
301.1486198199289,-80.10698267603146,426.3047172599526,-0.3145422688190764,0.0013963198130151392,-0.9492424408006246
301.69528195921123,-84.34676802229421,426.11421247940655,-0.32404391496942814,0.0014245974932693048,-0.9460409672383475
302.23133284784586,-88.58778475587178,425.9212051901762,-0.33327520516694387,0.0014520260367672784,-0.942828472863076
302.75661697678044,-92.8300570693325,425.72609813357315,-0.3422373088603242,0.0014786123359711407,-0.9396123871733507
303.2709918521275,-97.07358481516354,425.52928932030363,-0.350931874476196,0.0015043646242953507,-0.9363997844743988
303.77433083613687,-101.3183737793155,425.3311698756131,-0.35936103628443317,0.0015292924857673194,-0.9331973568678124
304.2665219933609,-105.56443527632234,425.13212337369055,-0.36752735403876274,0.0015534066665987942,-0.9300114144251104
304.747463699977,-109.811756732069,424.9325266492823,-0.375433702399015,0.001576718740855216,-0.9268479104259663
305.217067783538,-114.0603367580432,424.7327476801183,-0.38308328824102744,0.0015992411556335275,-0.9237124209937678
305.67525641438357,-118.31016668468942,424.53314606182676,-0.3904795666479748,0.0016209869784544451,-0.9206101674604867
306.1219639253284,-122.56125648372813,424.3340714862138,-0.3976262401157026,0.0016419698912053004,-0.9175460081687052
306.5571297598843,-126.81357676531172,424.13586622753445,-0.4045271181585938,0.001662203775336515,-0.9145244927025805
306.98070498571894,-131.06712884325157,423.938861693876,-0.4111861970881257,0.0016817029448628798,-0.9115498248584168
307.39264471757014,-135.32187893692293,423.74338138118264,-0.4176075176685231,0.0017004817285247214,-0.9086259238810133
307.7929143190617,-139.57782891833642,423.5497375481713,-0.4237952427594207,0.001718554697420313,-0.9057563904186575
308.1814835550168,-143.83496568806004,423.358233562431,-0.42975354794466686,0.0017359363458221391,-0.9029445578516845
308.5583258350123,-148.09325891493268,423.16916400720925,-0.4354865953967479,0.0017526410168010004,-0.9001935089075099
308.9234213037688,-152.3527035092822,422.982812859843,-0.4409985676075529,0.001768683002534145,-0.8975060641179663
309.2767516008873,-156.61326818927927,422.7994558824355,-0.4462935760767297,0.0017840762806512773,-0.8948848311511762
309.61830259912864,-160.87493401227005,422.61935905018163,-0.451375693097088,0.0017988346096234357,-0.8923321959198662
309.94806192856726,-165.13767230601246,422.4427796636319,-0.45624890618849295,0.0018129713992355572,-0.8898503518774993
310.2660193786055,-169.40145645315414,422.2699660134518,-0.460917117249939,0.0018264997113654098,-0.8874413078760817
310.5721668041248,-173.6662690053161,422.10115730509295,-0.46538413523722866,0.0018394322419641907,-0.8851068992830889
310.86649645450217,-177.93208681347016,421.93658447918574,-0.46965364699627804,0.0018517812399293624,-0.8828488108217255
311.1489991764415,-182.19885997342578,421.776471181889,-0.47372918790834434,0.001863558425807307,-0.8806686003677513
311.4196679523736,-186.4665707264104,421.62103172953294,-0.4776141903529379,0.001874775135389177,-0.8785676811673073
311.6784950580627,-190.73520091280085,421.4704726465137,-0.4813119403057237,0.001885442197550855,-0.8765473525297188
311.9254701834584,-195.00470650116426,421.324993754642,-0.484825549330406,0.0018955698569542814,-0.8746088231497481
312.1605827433221,-199.27506192967974,421.18478682317703,-0.4881579868502859,0.0019051678705127447,-0.8727532012027577
312.3838202531833,-203.54624139762944,421.050036497844,-0.4913120565371912,0.001914245442484391,-0.870981514594645
312.5951667383257,-207.81819406993918,420.92092126972733,-0.49429037393639147,0.0019228111632547938,-0.869294730819791
312.7946047843867,-212.09089029519856,420.79761223628304,-0.4970953957422009,0.0019308730965916757,-0.8676937473907426
312.9821141212975,-216.36430428526444,420.6802739388655,-0.4997294002624492,0.0019384387262185768,-0.8661794092268863
313.1576701900985,-220.63838891059652,420.5690652568405,-0.5021944679969412,0.0019455149027412502,-0.8647525260356471
313.321244828791,-224.9130963851457,420.46413898214405,-0.5044924920487053,0.00195210787612183,-0.863413872219648
313.4728068359934,-229.18840557351314,420.3656414201689,-0.5066251868405398,0.0019582233229735835,-0.8621641870433994
313.61231952530693,-233.46426779428188,420.2737139292932,-0.5085940545592382,0.0019638662524430707,-0.8610041991165531
313.73974179852877,-237.74064442839406,420.1884921955497,-0.510400400963127,0.0019690410535242635,-0.8599346216858632
313.85502727528353,-242.017493719462,420.1101067439314,-0.5120453237617045,0.0019737514634819795,-0.8589561634442887
313.9581242388707,-246.29478414132146,420.03868289678906,-0.5135297124117186,0.001978000568788294,-0.858069532138327
314.04897438735554,-250.57245974484783,419.9743415414073,-0.5148542305344967,0.0019817907560853174,-0.85727544803647
314.1275134429687,-254.85048105370663,419.9171985983207,-0.5160193247662701,0.0019851237385850053,-0.856574641085939
314.19366992173497,-259.12878659535903,419.8673657530833,-0.5170252066794502,0.0019880005051410724,-0.8559678635977307
314.247365785702,-263.40736602201025,419.8249497770864,-0.5178718626219387,0.0019904213489304575,-0.855455885553041
314.2885141893992,-267.6861377707879,419.7900540323145,-0.518559018663882,0.001992385767475874,-0.8550395163741294
314.31702066832634,-271.96508081335674,419.76277728127934,-0.5190861585905149,0.0019938925140697366,-0.8547195939911434
314.3327813962416,-276.24411360360955,419.7432148278699,-0.5194524943717101,0.0019949395130021844,-0.8544970019299939
314.3356833541896,-280.5232281738755,419.73145787373693,-0.5196569701743424,0.001995523870347486,-0.8543726653128044
314.32560312754623,-284.80233920582816,419.72759433604836,-0.5196982372224158,0.0019956418010628743,-0.8543475637243401
314.30240654486727,-289.0813995844624,419.7317084918902,-0.5195746489652988,0.0019952886137365095,-0.8544227308399129
314.2659477406861,-293.36035594135893,419.74388130151516,-0.519284241882423,0.0019944586538557735,-0.8545992617989295
314.2160684871915,-297.6391402057661,419.76419043412426,-0.5188247201549905,0.001993145257655806,-0.8548783171469948
314.1525970814077,-301.91769300068495,419.7927104335644,-0.5181934349657566,0.0019913406900947043,-0.8552611288493392
314.0753473732294,-306.19595222169943,419.8295128165755,-0.5173873630446271,0.0019890360800928083,-0.8557490054316156
313.98411734552803,-310.4738657723061,419.8746663146287,-0.5164030792151952,0.001986221337971497,-0.8563433392640252
313.87868914391083,-314.7513346906014,419.92823632294227,-0.5152367430832102,0.0019828851126131317,-0.8570456036545756
313.75882480594646,-319.0283347388286,419.9902864370643,-0.5138840367142795,0.001979014607623391,-0.8578573776050537
313.62426847030287,-323.3047627655669,420.06087662146194,-0.5123401716580911,0.001974595594920692,-0.858780326671259
313.47474199554256,-327.5805438783651,420.14006462471417,-0.5105998207299288,0.0019696122120405634,-0.8598162267009726
313.309944049154,-331.8555914852775,420.22790551251967,-0.5086570855888909,0.0019640468606247374,-0.8609669632454807
313.12954781463753,-336.129812145874,420.3244517739161,-0.5065054458876557,0.0019578800507953488,-0.8622345388534687
312.9331979989979,-340.40311665477657,420.4297536460327,-0.5041376965722322,0.0019510902099581875,-0.8636210836598633
312.720507783232,-344.6754205166807,420.54385928279373,-0.5015458803771512,0.0019436534759319972,-0.865128864440364
312.4910562525528,-348.946627961948,420.6668144420964,-0.49872122184080075,0.0019355434922794482,-0.8667602878287676
312.24438730789694,-353.2165893514303,420.7986611270021,-0.49565407540368006,0.0019267312417148702,-0.8685178899956206
311.9800000071604,-357.4852003521412,420.93944051659173,-0.49233376160730064,0.0019171845551743951,-0.8704043839417325
311.6973456944771,-361.75235527237044,421.08919188298916,-0.48874847918115316,0.00190686783504799,-0.872422654424545
311.3958267486088,-366.01788276425924,421.2479502534771,-0.48488523179125115,0.0018957418168745425,-0.8745757360879093
311.0747840249411,-370.2816373662448,421.41574955775775,-0.4807296021694468,0.001883762886940188,-0.876866866197709
310.7334924618295,-374.54344685279705,421.5926208216527,-0.47626561828116926,0.001870882658599492,-0.8792994715347744
310.3711497419637,-378.80313920914926,421.7785932627331,-0.4714755173414024,0.0018570472471063487,-0.8818771954887931
309.98686984960176,-383.0604886532471,421.97369195887325,-0.4663395587544506,0.001842196676986272,-0.8846038787231872
309.5796631320978,-387.3152935664086,422.17794131553705,-0.46083563957447987,0.0018262637081978897,-0.8874836212904711
309.1484306604299,-391.56726559976886,422.391359902984,-0.4549390784511609,0.001809173136286406,-0.8905207250763855
308.69193495633937,-395.8161356885801,422.61396548217596,-0.4486220537120752,0.0017908400752506774,-0.8937197803646202
308.2087851723933,-400.0615649106127,422.8457706156461,-0.44185320246005383,0.0017711686857214927,-0.8970856204606565
307.6974051113728,-404.3031740112896,423.08678404674833,-0.43459694305131236,0.0017500500752230712,-0.900623358799442
307.1559994570516,-408.5405195601918,423.3370093586331,-0.42681271800138293,0.0017273599333245489,-0.9043383879831337
306.58250856274805,-412.7730868247672,423.59644448985705,-0.4184540079096975,0.0017029554572930213,-0.9082363916993313
305.97455231113145,-417.0002663814409,423.8650802817681,-0.409467101801244,0.0016766715108734614,-0.912323342524532
305.32935537427926,-421.2213372402541,424.1428993933339,-0.3997894839610289,0.0016483155876090881,-0.916605504876497
304.6436578487274,-425.43538619748665,424.42987091939244,-0.38934785958425594,0.0016176616165012017,-0.9210893699354331
303.9135706317366,-429.64135486900744,424.72595353531267,-0.37805515011480334,0.0015844406064077319,-0.9257817199640735
303.1344170820395,-433.8378548901344,425.0310829031355,-0.36580700645391606,0.001548329675253787,-0.930689441599313
302.3004683529901,-438.02316429608595,425.3451714276205,-0.3524763028125938,0.001508934852783949,-0.9358195227025213
301.40460346846237,-442.19498450515783,425.6680908854115,-0.3379058983551522,0.0014657683467670796,-0.9411787584619361
300.43777319152827,-446.35024118369466,425.99965798452905,-0.3218974693041816,0.0014182135436013074,-0.9467734723395602
299.38818419883324,-450.4846873850447,426.3396053653451,-0.3041945581476094,0.0013654718223450944,-0.9526089471971608
298.23999530646324,-454.5921714228987,426.6875266596586,-0.28445560194646735,0.0013064778411970446,-0.9586883245544006
296.97107852756494,-458.6633593352977,427.04277908991946,-0.26220795124367147,0.0012397550617377088,-0.9650105975127856
295.5489685584121,-462.68302945968054,427.404271609853,-0.2367650368558488,0.0011631551532400501,-0.9715662429256885
293.92273241131977,-466.6241594798893,427.7699921830783,-0.20706116595327004,0.0010733377765942153,-0.9783274101751877
292.0049330178879,-470.4319397039113,428.13569040043785,-0.1712867024875159,0.0009646193929425435,-0.9852207544811366
289.66129431357405,-473.9270426255555,428.48584638197957,-0.12664867318970813,0.0008281470612603514,-0.9919472908132423
287.2733269235435,-476.2453564829605,428.73278258992235,-0.08037217348611969,0.0006857250991992865,-0.9967646881336666
284.8599313802027,-477.3589765886537,428.8693234353575,-0.03308242491409921,0.0005392099417619799,-0.9994524813188678
282.4405797183518,-477.2543604677228,428.89181175181835,0.0145340477371661,0.00039069487441820643,-0.9998942988205747
280.0349172693811,-475.9327503097003,428.800287138882,0.061770611701629737,0.00024238682201308835,-0.9980903429943779
277.66235599837273,-473.4101347802631,428.59847613886603,0.10794463400173274,9.646838613340678e-05,-0.9941569024475373
275.3859604327711,-469.79904454375117,428.3004098699979,0.15159675601577402,-4.235084213696266e-05,-0.9884424220822879
273.53675646880555,-465.95321728343936,427.982767918825,0.18642542748484547,-0.00015372704196693767,-0.9824691019849374
271.9624838589497,-461.98742473715856,427.6588480385768,0.2155384708245136,-0.00024725335568462174,-0.9764953181968709
270.583150938377,-457.9497020045052,427.33447653861384,0.24058836610476705,-0.00032804425172275537,-0.9706271840835735
269.35145014660964,-453.8643406320598,427.01270888524374,0.26256385727017556,-0.00039916587371801964,-0.9649145358641935
268.2368523925753,-449.7451500321114,426.69533883316734,0.2821100721791314,-0.0004626222653791703,-0.9593819328899856
267.2183838128488,-445.6007173978104,426.3835107210462,0.29967486805585375,-0.0005198069208532274,-0.954041248194475
266.2809295762553,-441.43674230073213,426.0779993071745,0.3155841355167132,-0.0005717354502295396,-0.9488974267689545
265.41317962943793,-437.25718549096314,425.7793517256973,0.33008388265260424,-0.0006191757380493663,-0.9439514007799276
264.6064178333242,-433.0649213259814,425.4879684494341,0.34336521444164453,-0.0006627252392066483,-0.939201730357595
263.8537588167433,-428.8620892052781,425.2041492635393,0.3555801500475369,-0.0007028599737424733,-0.9346455279302569
263.1496525647847,-424.65032006605327,424.92812284881677,0.3668519667378509,-0.0007399665787456059,-0.9302790371442501
262.48955618887305,-420.4309299209814,424.660069102759,0.3772821367355288,-0.0007743637924480898,-0.92609804538234
261.8696853842784,-416.20493263615685,424.400126627598,0.3869555119463558,-0.0008063185814054731,-0.922098032545715
261.2868584089641,-411.97318248837564,424.1484066369469,0.3959437113229384,-0.0008360566183570809,-0.9182744026015035
260.73836239399026,-407.73635103105914,423.9049950972032,0.4043079258602063,-0.0008637710262200408,-0.9146225204893177
260.22187293863465,-403.4950503645848,423.66996264433396,0.4121007268738805,-0.000889627961014357,-0.9111378597512618
259.7353676554894,-399.2497312222365,423.44336087144876,0.4193678375938423,-0.0009137721716626564,-0.9078159404925003
259.27708520555944,-395.0008065348808,423.22523096770226,0.4261491168396676,-0.0009363300198655766,-0.9046524490116992
258.84548116422303,-390.7486631138788,423.01560526660654,0.4324795212279515,-0.000957412480557173,-0.901643248230576
258.4391883068824,-386.4936200262716,422.81450605317025,0.4383899403042063,-0.000977117762690411,-0.8987843487071592
258.0569929898295,-382.23597122133043,422.62194850301785,0.44390774793660853,-0.0009955330179238987,-0.8960719392079292
257.6978082403146,-377.9759378110492,422.4379392118361,0.44905736508505567,-0.0010127361122799334,-0.8935023543496872
257.36066035707415,-373.7137209401335,422.2624792826907,0.4538605975488603,-0.0010287966668846903,-0.8910721068297501
257.0446760983902,-369.4495392543362,422.0955661326329,0.4583369434672386,-0.0010437770125103544,-0.888777900705602
256.7490651852399,-365.1835718022974,421.93719139097885,0.4625039473482343,-0.0010577333127252345,-0.8866165912543826
256.4731129569301,-360.91600261494796,421.7873429247798,0.46637739327762917,-0.0010707161596165196,-0.8845852025703737
256.2161670355345,-356.6469533755397,421.64600270675226,0.46997156932511974,-0.0010827714164014842,-0.8826808889016142
255.9776338688183,-352.3765408562547,421.51314922569117,0.4732993819349609,-0.0010939405643535646,-0.8809009583114469
255.75697398689374,-348.10491583106545,421.38875866651415,0.4763724798335563,-0.0011042610868161622,-0.8792428794506555
255.55369288692327,-343.8322053516672,421.27280308560427,0.47920143076505023,-0.0011137670354613995,-0.8777042487510923
255.36733581067125,-339.5584951071535,421.1652502286151,0.48179583705157664,-0.0011224893955132404,-0.8762827805094241
255.19748641047195,-335.2838870435892,421.0660652135761,0.4841643915661632,-0.0011304562539745688,-0.874976321969929
255.0437617047933,-331.0084710456464,420.9752097816459,0.48631498050694755,-0.0011376931279253124,-0.873782836515386
254.9058103357919,-326.7323681946798,420.89264318304953,0.48825473584618684,-0.0011442231260443765,-0.8727004088902492
254.78330669417142,-322.45564013319483,420.81832035496507,0.4899901422091275,-0.0011500672954392612,-0.871727215293348
254.67595137435947,-318.17837152314183,420.7521936480631,0.4915270520196729,-0.0011552446615238985,-0.870861540396992
254.5834678209815,-313.90063494268486,420.6942121131381,0.4928707513451556,-0.001159772440056332,-0.870101762667074
254.50560121932259,-309.6225316403604,420.644321995723,0.49402599138927483,-0.0011636661348406224,-0.8694463558569733
254.44211484248598,-305.3440852400156,420.60246546290364,0.49499705570705754,-0.0011669397569928576,-0.8688938675655086
254.39279128243584,-301.06539593565765,420.56858233564765,0.49578775322931823,-0.0011696057951720185,-0.8684429375440326
254.3574288755149,-296.7865062980868,420.54260860855493,0.49640148170976056,-0.001171675424073466,-0.8680922739738299
254.33584169218554,-292.5074970403118,420.524477215779,0.4968412354129018,-0.0011731585257539747,-0.8678406596216007
254.32785774299907,-288.22838271102296,420.5141174342779,0.49710964177165123,-0.0011740638093320375,-0.867686939876262
254.33331856264158,-283.94925736895436,420.5114553434086,0.49720896958676725,-0.001174398835344769,-0.8676300256156657
254.35207761418732,-279.670193943988,420.5164132153968,0.49714116060130853,-0.0011741701195024836,-0.8676688814061008
254.3840000747229,-275.3912092254718,420.52890973118025,0.4969078401043699,-0.0011733831662199758,-0.8678025245496553
254.4289614122756,-271.11238766318706,420.5488596706365,0.4965103355837019,-0.0011720425297514407,-0.8680300184756677
254.4868477233739,-266.833742206838,420.57617421180544,0.4959496827380433,-0.0011701518331109005,-0.8683504724111811
254.55755345910453,-262.55536300765505,420.6107600863005,0.4952266523033769,-0.0011677138575685777,-0.868763028272231
254.64098308405224,-258.277253850316,420.65252052599556,0.49434173896200634,-0.001164730504633354,-0.8692668684143388
254.7370476936989,-253.99950290838441,420.7013537518152,0.4932952000595454,-0.001161202926306797,-0.8698611942177769
254.84566723022232,-249.72213385093372,420.7571541957788,0.49208703574051504,-0.0011571314581265474,-0.8705452373673074
254.96676825612784,-245.4451954014332,420.81981148795387,0.4907170152946011,-0.001152515708289915,-0.8713182441610531
255.10028495319625,-241.1687048956274,420.8892110545373,0.48918466799641525,-0.0011473545273777354,-0.8721794793360054
255.2461552579112,-236.8927569461847,420.9652321783481,0.4874893289958397,-0.0011416461637587492,-0.8731281983530381
255.40432620671174,-232.61734407167037,421.04775083250274,0.4856300788299294,-0.0011353880609634194,-0.8741636788551601
255.57474734184999,-228.3425418087078,421.13663628525916,0.48360582068883956,-0.0011285771191702986,-0.8752851743915008
255.75737442042538,-224.0683885891823,421.2317530590856,0.48141523789475704,-0.0011212095535610537,-0.8764919347101098
255.952168333634,-219.79491165340016,421.33296038039146,0.4790568065138271,-0.0011132809385702397,-0.8777831946091956
256.15909390001485,-215.52214668107507,421.44011155323375,0.4765288099332868,-0.0011047862588793047,-0.8791581613969623
256.37811884617173,-211.2501475874256,421.5530534303424,0.4738293516022263,-0.0010957199543386426,-0.880616003123947
256.6092174387606,-206.97890959304777,421.6716282709983,0.47095631010469025,-0.0010860757714469121,-0.8821558674134596
256.8523621099913,-202.70852044203366,421.79566941888146,0.46790744290910014,-0.0010758471142051417,-0.8837768199173668
257.1075331629817,-198.43897407028277,421.9250062601891,0.46468026578214483,-0.0010650266420247272,-0.8854779027795595
257.3747104769042,-194.17031481777514,422.0594599532591,0.4612721564366209,-0.001053606620425781,-0.8872580727214596
257.653875874616,-189.9025853663008,422.1988446313026,0.4576803258459895,-0.0010415788276520776,-0.8891162097538513
257.945013780139,-185.63581175256707,422.342967706422,0.45390181039229366,-0.001028934531520659,-0.8910511140312481
258.2481101813528,-181.37001508655067,422.49162932251716,0.44993348600614896,-0.0010156645400860149,-0.8930614909377161
258.5631480240351,-177.10526783673674,422.6446201066188,0.4457721305861493,-0.0010017594135516845,-0.895145912167822
258.8901166264692,-172.84155817975204,422.80172576140177,0.4414143023316725,-0.0009872090609684301,-0.8973028692227126
259.2290028611107,-168.57890778079133,422.96272274729967,0.43685645802733547,-0.0009720031392211327,-0.8995307055846999
259.57979034138117,-164.31736993195398,423.12737798211145,0.4320949690601594,-0.0009561311095186222,-0.9018276018875232
259.94246390856,-160.05696653338492,423.29545102165866,0.4271260657895613,-0.0009395820551820535,-0.9041915953539342
260.3170084733191,-155.79769986947758,423.4666935200948,0.42194585763396886,-0.0009223447523623151,-0.9066205614840709
260.70340338682576,-151.53961043253491,423.6408467319295,0.41655041750802607,-0.0009044079543745515,-0.9091121667429939
261.1016262456279,-147.28272482511886,423.8176434024204,0.4109357380693825,-0.0008857602489878041,-0.9116638824732245
261.51165250527333,-143.02705518959033,423.9968077005214,0.4050977459019949,-0.0008663901087483262,-0.9142729710722622
261.93345108879316,-138.77263823500004,424.1780534696579,0.39903237500151223,-0.0008462861375627064,-0.916936446816477
262.36698801529667,-134.51948998943686,424.361086043305,0.39273552823535635,-0.0008254369450764752,-0.9196510879216886
262.812227713368,-130.26758917933165,424.54560296305203,0.38620307117833713,-0.0008038311288994817,-0.9224134331567034
263.269120375156,-126.01699101701416,424.73128902687057,0.3794310341204183,-0.0007814579443819847,-0.9252196926513135
263.73761553750546,-121.76768880685876,424.91782231136,0.37241543244547115,-0.0007583067111724039,-0.9280658223678881
264.21765139008215,-117.51970751728976,425.104870189926,0.365152445396185,-0.0007343674043708813,-0.9309474487454713
264.7091615976769,-113.27303431547625,425.29209251511634,0.3576383374278571,-0.0007096303945167747,-0.9338599017125327
265.2120639740112,-109.02770980542635,425.4791378013776,0.34986965673995246,-0.0006840871001334583,-0.9367981401121093
265.7262735124513,-104.78370809503895,425.66564877852045,0.341843064447048,-0.0006577294230572784,-0.9397568231630232
266.25169149539397,-100.54102324256388,425.85125891602456,0.33355553222935,-0.0006305503955305852,-0.9427302420763821
266.78820566680406,-96.29965807663302,426.0355933431844,0.325004375264801,-0.0006025442828896747,-0.9457123204226131
267.33568664972466,-92.0596430871538,426.21826857069686,0.31618734763374284,-0.0005737068892415996,-0.9486965964188676
267.8939983539982,-87.82094789778148,426.3988969312825,0.30710251421527845,-0.0005440351306978113,-0.9516762841368022
268.46298528004996,-83.58357326044268,426.57708330697665,0.2977484953863555,-0.0005135278267934374,-0.9546442110987383
269.04247808191843,-79.34750059426597,426.7524281172783,0.2881244209873905,-0.0004821855385229562,-0.9575928600025105
269.6322876436892,-75.11272884285728,426.9245267137814,0.27823007331561633,-0.0004500110214349779,-0.9605143537672237
270.2322110012648,-70.87922484313088,427.0929724694371,0.26806583497258246,-0.0004170090409150549,-0.9634005056174259
270.8420247086727,-66.64696534763846,427.25735620836383,0.25763284675509984,-0.0003831868688925835,-0.9662428108093154
271.4614823092283,-62.41594752198,427.41726716556934,0.24693310048503656,-0.00034855456480127226,-0.969032467151933
272.09032168579915,-58.18613309284774,427.572296554865,0.23596936015793576,-0.00031312469867361405,-0.9717604452845245
272.7282580730318,-53.957492355612544,427.7220373883319,0.2247453276131085,-0.00027691286432733695,-0.9744174983216086
273.3749892193137,-49.72996617494704,427.8660874672618,0.2132655957513971,-0.00023993750295146652,-0.9769942313538992
274.03018202256175,-45.50355050868353,428.00404825364285,0.20153592667710063,-0.00020222077146948364,-0.979481102097004
274.6934873081919,-41.27819724403474,428.13553017129914,0.1895630274929214,-0.00016378778996208225,-0.9818685409876813
275.36453218616464,-37.0538636162712,428.260152826234,0.17735471726996374,-0.00012466714823066257,-0.9841469853229208
276.0429216697334,-32.83050180482303,428.37754737132144,0.16491992413911333,-8.489086325338956e-05,-0.986306955980485
276.7282390228218,-28.608058146064593,428.4873585791411,0.15226869753927705,-4.449438448442495e-05,-0.9883391329750846
277.4200474400209,-24.386465466396714,428.5892470941195,0.13941218750689938,-3.5164932280781266e-06,-0.9902344378793212
278.1178859118397,-20.16567203852344,428.68289082170793,0.12636272328647633,3.800048205326517e-05,-0.9919841030579012
278.82127507226824,-15.945610699442113,428.7679877900321,0.11313369717953971,8.001107154549356e-05,-0.9935797704063406
279.52971456027177,-11.726221095552319,428.8442576873398,0.09973959574674782,0.00012246659952714787,-0.9950135667628897
280.24268322904726,-7.507455449753024,428.91144384691086,0.08619596833839095,0.00016531531928702962,-0.9962781879139242
280.95964875415586,-3.289230340472102,428.9693158916468,0.07251920550336942,0.0002085031469092833,-0.9973669943203445
281.68006338631477,0.9285379119195909,429.0176707307194,0.058726568976474124,0.00025197359500019176,-0.9982740738923147
282.4033618065312,5.145910162066741,429.05633395949843,0.04483617389680729,0.0002956678575937458,-0.9989943093385534
283.1289684388912,9.362955621846709,429.08516170213915,0.030866780355497007,0.00033952549237305837,-0.9995234497463906
283.8563004697068,13.5797566181339,429.10404171704795,0.016837657770439704,0.0003834848671159247,-0.9998581630512212
284.5847684312076,17.796398580708,429.112894178445,0.002768489328517165,0.00042748347570882464,-0.9999960763546604
285.3137767990364,22.012959715406794,429.1116723432434,-0.011320728973434677,0.00047145826715122845,-0.9999358073509583
286.042725855211,26.229507612204884,429.1003630704205,-0.02540981758666442,0.0005153460585213636,-0.9996769856251829
286.7710218012806,30.44614333407651,429.07898681399223,-0.0394787042967201,0.0005590844447367323,-0.9992202556652041
287.4980661997462,34.66292591235083,429.04759773821667,-0.05350731572917451,0.000602611459199787,-0.9985672756619292
288.2232722135504,38.87995216803432,429.00628292237917,-0.0674759847763053,0.0006458668340057515,-0.9977206895391619
288.94605299929435,43.097275443777846,428.9551623110835,-0.08136531704573674,0.0006887915745055589,-0.9966841078035775
289.6658392540227,47.31499434753084,428.8943868908162,-0.09515661367205386,0.0007313292527005277,-0.9954620455004759
290.38206490016336,51.533156477554996,428.82413870273155,-0.1088316745971887,0.0007734253796014633,-0.9940598917658602
291.09418760688646,55.75186700433352,428.7446278405283,-0.1223732614624569,0.0008150288089645452,-0.9924838137758628
291.801670600462,59.971170646712096,428.656092833236,-0.1357648112614925,0.0008560908289452646,-0.9907407244741804
292.5039972281339,64.19112747342416,428.5587976960046,-0.148990765714965,0.0008965661463806537,-0.9888381808470048
293.2006739974472,68.41182312630741,428.4530295970449,-0.16203666765696365,0.0009364131482749766,-0.9867842932804731
293.89122163479965,72.63330754178486,428.3390983157493,-0.1748890227547589,0.0009755934452761615,-0.984587668995156
294.5751878355506,76.85566615634639,428.2173323827429,-0.18753555726743268,0.0010140726240263959,-0.982257291353496
295.25213388507416,81.07893292165886,428.0880793719066,-0.19996497861388984,0.00105181948228906,-0.9798024806070473
295.92164439684956,85.30314565027197,427.9517023659902,-0.212167156899229,0.0010888065474655116,-0.9772327829302494
296.583332192689,89.52837516631399,427.80857675890303,-0.22413320254697286,0.0011250102752216806,-0.9745578699430415
297.2368264398172,93.7546491183711,427.65909064549805,-0.23585523237209294,0.0011604103060052493,-0.9717875090834557
297.88178291237733,97.98201700283153,427.5036406471003,-0.24732653079880085,0.0011949899199680388,-0.9689314522514587
298.5178790968592,102.21052020670288,427.3426309360932,-0.2585414294837161,0.0012287356405881083,-0.9659993889486899
299.14481390707886,106.4401918914499,427.1764714029646,-0.2694952662089037,0.0012616370807552548,-0.9630008877269367
299.7623085772115,110.67106592063294,427.0055755468754,-0.2801843599261917,0.0012936868392013478,-0.9599453374162054
300.3701062898897,114.90317861432544,426.8303587175823,-0.2906059597916974,0.0013248803206055027,-0.9568418995976727
300.96796718145407,119.13653843612678,426.65123784143566,-0.3007581137296784,0.0013552153177307773,-0.9536994916729318
301.5556753381945,123.37118026131577,426.46862773692294,-0.31063974070023387,0.0013846922053626157,-0.9505267140513136
302.1330305394684,127.60711314323476,426.2829420045156,-0.32025044215364823,0.0014133133566626224,-0.9473318620450538
302.6998503439118,131.84434068388845,426.0945910141393,-0.3295904908170603,0.001441083092556194,-0.9441228901167952
303.2559744332476,136.0829014324891,425.90397901928327,-0.33866085405533697,0.0014680077345617189,-0.9409073657293798
303.80125147984745,140.3227771980337,425.71150731577444,-0.34746293274714285,0.0014940948151011527,-0.9376925285227764
304.3355494554161,144.56397801915483,425.5175696236593,-0.35599868679391644,0.0015193534388415,-0.9344852200897212
304.85875045917584,148.8065112539195,425.3225527425189,-0.3642705081074625,0.001543793895505949,-0.9312919057006451
305.3707486453523,153.05037254597164,425.12683636264677,-0.37228114850208016,0.0015674274384497116,-0.9281186829501912
305.8714506520299,157.29555689408704,424.9307920459842,-0.3800336898352423,0.0015902661898920627,-0.9249712782803887
306.36077781715704,161.54208683373332,424.73478150083747,-0.3875315427872022,0.0016123231314550878,-0.921855034026007
306.8386554138699,165.78992777878995,424.5391601547066,-0.3947782496526619,0.0016336115197434205,-0.9187749805662881
307.3050236642838,170.03909122318083,424.34427213058507,-0.401777624378317,0.0016541452956870292,-0.9157357721265761
307.75982620624706,174.2895402710713,424.15045439825394,-0.408533551035819,0.001673938490722079,-0.9127417683047013
308.20302116679704,178.54129945697548,423.958031623142,-0.41505012548031395,0.0016930056413594276,-0.9097969702470294
308.634567418058,182.79433444984835,423.76732158286643,-0.42133142948546953,0.0017113611273932067,-0.9069051206001776
309.0544328682528,187.0486372949897,423.5786312630052,-0.42738163474257373,0.001729019477389699,-0.9040696592500006
309.46258684689354,191.30415800045392,423.3922599221666,-0.43320487543638225,0.001745994997763353,-0.9012937852884687
309.85901073728104,195.56092219514653,423.20849398362606,-0.43880538535205094,0.0017623021743565033,-0.8985803960008721
310.24368096787776,199.81885973247006,423.0276146039137,-0.4441872427753961,0.0017779549312382085,-0.8959322140831044
310.616585814203,204.0779920452228,422.8498897096101,-0.44935459682612955,0.001792967292415624,-0.8933516841532874
310.9777116845258,208.3382906523164,422.6755802341355,-0.4543114646680846,0.0018073527944893013,-0.8908410781654694
311.3270454472508,212.59970496141653,422.50493899061144,-0.45906175771239405,0.0018211245665870105,-0.8884024910542069
311.66457946378233,216.86223043243604,422.3382081193847,-0.4636093431490524,0.0018342955119683695,-0.8860378165207615
311.9903055373931,221.12584378567476,422.1756219474945,-0.46795795530567574,0.0018468780541987693,-0.8837487997771675
312.3042156836797,225.3905172852747,422.0174065927427,-0.4721112020600005,0.0018588841593708137,-0.8815370425791212
312.60629873127726,229.65617604563727,421.86378167719806,-0.4760725168552894,0.0018703252010479317,-0.8794040371630735
312.8965507825235,233.92285227735897,421.71495499285055,-0.4798452929287758,0.0018812123513730966,-0.8773511018367653
313.1749593146608,238.19046677430367,421.57113058934993,-0.48343267268830553,0.00189155597618382,-0.8753795022694046
313.4415167793798,242.45903335262665,421.43250183154527,-0.48683772335745745,0.0019013661453801385,-0.8734903639553839
313.6962076010265,246.72846517729835,421.2992581330508,-0.4900632683711268,0.001910652150053712,-0.8716847723814902
313.93901968987717,250.99876433574252,421.1715790002189,-0.49311203397517855,0.0019194229280845578,-0.8699636991073166
314.1699373902761,255.26991904388694,421.04963771728507,-0.4959865583294826,0.00192768680521206,-0.8683280589616207
314.3889378354398,259.54183442616943,420.93360332546354,-0.49868914708122786,0.0019354513704854584,-0.8667787425931659
314.5959994918158,263.81449742243205,420.82363613496125,-0.5012219796972833,0.001942723784692933,-0.8653165622433402
314.7910973619829,268.0879028060162,420.7198902735808,-0.503587049122708,0.0019495106093323845,-0.8639422916863528
314.9741997777035,272.36198752770866,420.6225154196531,-0.5057861233987242,0.0019558176989689473,-0.862656694261639
315.14527233026155,276.6367211799127,420.531654727957,-0.5078207937262347,0.001961650341445645,-0.8614605001897621
315.304274471386,280.9120344865833,420.44744663984415,-0.5096924336455336,0.0019670131428288014,-0.8603544350695178
315.45116463684263,285.18796989366604,420.37002217210085,-0.5114022590132316,0.0019719102010721896,-0.8593391885898853
315.5858893056618,289.46438389633806,420.29951068290535,-0.5129511996773213,0.001976344740033379,-0.8584154942748093
315.7083947050624,293.74129467879663,420.2360336731531,-0.5143400353792398,0.0019803195001317597,-0.8575840520559834
315.8186176034764,298.0186163318869,420.17970958387883,-0.5155692881660713,0.0019838364314049436,-0.856845594896154
315.91648992840743,302.29632514683937,420.1306513368928,-0.5166392739064577,0.001986896841898247,-0.8562008601364214
316.00193631242126,306.57440092901516,420.08896755963735,-0.5175500722305078,0.001989501312276134,-0.8556506089629836
316.07487271684045,310.852773990408,420.054763167049,-0.5183015097349527,0.0019916496481937967,-0.8551956374644036
316.13520721001714,315.1313710225681,420.02813884471175,-0.5188931660180244,0.001993340897657048,-0.8548367732215646
316.1828401577161,319.41018720458555,420.0091909144962,-0.519324370637407,0.00199457334209149,-0.854574876613655
316.21766163809536,323.68914206247814,419.9980123516256,-0.5195941730839466,0.0019953444099684485,-0.8544108577832419
316.2395522949681,327.9681826184158,419.99469225793814,-0.5197013456862841,0.001995650684212853,-0.8543456728223138
316.24838222706074,332.2473046740023,419.99931629763347,-0.5196443642849637,0.0019954878456880675,-0.854380332577438
316.24400989922515,336.52638235932693,420.0119666297178,-0.5194213959195938,0.0019948506363120667,-0.8545159062486078
316.22628170541384,340.80542809603645,420.032722401127,-0.5190302769173889,0.001993732794287051,-0.8547535297807219
316.195031309311,345.0843186785304,420.06165907542805,-0.5184685081654621,0.0019921270379400437,-0.8550944026658955
316.1500775601006,349.36306125944867,420.0988498259712,-0.5177332101265053,0.001990024933947088,-0.8555398079182909
316.09122495954875,353.64155340074666,420.1443641332233,-0.516821128628302,0.001987416910066199,-0.8560910998120431
316.0182613859348,357.9197336864122,420.1982688811133,-0.5157285893740521,0.001984292120602193,-0.8567497211479153
315.9309575703393,362.19751240242283,420.2606277944063,-0.514451481665748,0.0019806383946099986,-0.8575172010423268
315.82906428074455,366.4748403763664,420.3315024794069,-0.5129852058903159,0.001976442079567129,-0.8583951725250886
315.7123120316058,370.75163561067933,420.41095150381653,-0.5113246566573192,0.0019716879860240295,-0.8593853663757375
315.58040837400597,375.02782454151816,420.4990310689272,-0.5094641684695667,0.0019663592239188327,-0.8604896248514654
315.43303713664915,379.3032987804649,420.59579418079164,-0.5073974871548826,0.0019604371113459405,-0.8617098970739763
315.26985245747255,383.57801877602,420.70129306725045,-0.5051176655568433,0.001953900864794363,-0.8630482757145254
315.090482270243,387.8518411066549,420.81557519880965,-0.5026170887526276,0.0019467276588579835,-0.8645069533238328
314.89451905584224,392.1246870647615,420.9386873587679,-0.4998873176047762,0.0019388921632068645,-0.8660882809477802
314.6815188378896,396.39646759426284,421.0706740292365,-0.49691904372576745,0.001930366396431705,-0.8677947554970843
314.45099945213406,400.66704303576194,421.21157603124504,-0.4937020294728175,0.0019211195344850129,-0.8696290102073155
314.2024328354979,404.9362886287547,421.36143248234936,-0.4902249593206799,0.0019111174613180564,-0.8715938485837809
313.93523730778253,409.2041227402027,421.5202821612411,-0.4864752842843696,0.0019003222951452516,-0.8736922722306844
313.6487825667347,413.47032691182005,421.68815683183004,-0.4824392374150341,0.0018886924028145193,-0.8759274028385046
313.34236644312324,417.73479908795457,421.8650907077557,-0.47810144406996136,0.001876181241985283,-0.878302618191569
313.01522241783135,421.9973103879482,422.0511109853493,-0.4734449542915809,0.001862737412413486,-0.8808214379005402
312.6664933394124,426.2577277628847,422.24624709678704,-0.4684507848573929,0.0018483032854739252,-0.8834876603221223
312.29523233500737,430.51583465928917,422.4505231537026,-0.4630978312529019,0.0018328146908122836,-0.8863052744281553
311.9003879205912,434.77135002851884,422.66395824975393,-0.4573625388173904,0.0018161998967849073,-0.8892784769151034
311.48077940218326,439.0240068052807,422.8865702203701,-0.4512184097395458,0.0017983781000794762,-0.8924117393604393
311.03507509957007,443.2735404434571,423.118375479001,-0.44463552026280645,0.0017792579247038233,-0.8957098237497791
310.56178007166193,447.5195509879372,423.3593814529325,-0.4375801464675439,0.0017587362139469276,-0.8991776922635326
310.05918224477,451.7616964175895,423.6095971743736,-0.43001373192777215,0.0017366948802208387,-0.9028206766819438
309.5253349568234,455.99947167110906,423.8690207387902,-0.42189234161493194,0.0017129991292411792,-0.9066443170949968
308.9579921051474,460.2323161218959,424.13764516342127,-0.41316534003895683,0.0016874933766717257,-0.9106544647431302
308.35454574750696,464.4595585841182,424.4154550344867,-0.4037740115815605,0.001659996926395914,-0.9148572522429597
307.71193380922546,468.68042553295345,424.70242706787707,-0.39364960311375896,0.001630297869636467,-0.9192591213021694
307.02654048722223,472.8938967336798,424.99852029612407,-0.382711100141515,0.0015981460816367609,-0.9238666893862841
306.2940179910522,477.09879050329124,425.30368179559474,-0.3708615513684677,0.0015632417870368532,-0.9286868503385243
305.5090889201423,481.29355732594183,425.61783230387545,-0.3579837847519824,0.0015252220862454827,-0.9337265571634095
304.6652361394338,485.4761763882005,425.940858408345,-0.34393390205368646,0.0014836405806587516,-0.9389926889112357
303.7542400596451,489.64401678674756,426.2726026134979,-0.32853165899533143,0.0014379372482138876,-0.9444918641122566
302.76551649889296,493.7934136255957,426.61283138827395,-0.3115466264660385,0.0013873949683134762,-0.9502298536000816
301.6850264881188,497.91917750069655,426.9611978405392,-0.29267572953903004,0.0013310690468129028,-0.9562108269591957
300.4934798818599,502.01360178269056,427.3171649926644,-0.2715063832254813,0.0012676714124602614,-0.9624358040290314
299.1631709437787,506.064468773678,427.6798478458867,-0.2474518951098115,0.0011953674764740648,-0.9688994430296464
297.6518730394208,510.0508853669479,428.0476769770558,-0.21962766090167515,0.00111138647605239,-0.9755831360714265
295.88990573987115,513.9328261007784,428.4175314588154,-0.18659037053348174,0.0010111992749226497,-0.9824372810007794
293.74883397562246,517.6198049310353,428.7820623813695,-0.14571097036146394,0.0008865363455184162,-0.9893268050394817
291.3949644077982,520.4532207353701,429.0760715655066,-0.10005427447723227,0.0007464153097651136,-0.9949817008483223
289.0001413993223,522.092334272452,429.26125837938866,-0.0531109950895142,0.0006013829650607678,-0.9985884340102938
286.5835199790079,522.5173517491671,429.3324320182556,-0.0055464289557467785,0.0004534461878428951,-0.9999845156363141
284.164690047472,521.7231354592835,429.2880584377091,0.041935919247679795,0.00030478037430051733,-0.9991202559180631
281.76327213076985,519.7193636585181,429.1303308063541,0.08863800339349115,0.00015759530559465734,-0.9960638932910555
279.39851200627004,516.5302279591499,428.865050095958,0.13391003912763808,1.3997938312167605e-05,-0.9909934920194443
277.36505213690856,512.7783083281257,428.5502349263996,0.17206825870523057,-0.00010774826247725828,-0.985085023100271
275.6590979461143,508.8674729097867,428.2246543404418,0.20341324296609767,-0.00020825297418682544,-0.9790929522863057
274.17692555633533,504.86669161263205,427.8965006516055,0.23008548408829393,-0.0002941342511746715,-0.9731703774246819
272.8599551851861,500.80839778104,427.56977817055514,0.2533073200387023,-0.00036917962279975824,-0.9673857892905067
271.67167151545294,496.7102805442874,427.246739947348,0.27384905740956866,-0.0004357802158291481,-0.9617725842690121
270.5876112768419,492.58301207059515,426.9287797490935,0.29223219411574586,-0.0004955574857166342,-0.9563472691157096
269.59045809862045,488.43343228063446,426.61681341487906,0.3088294202699695,-0.0005496721108446558,-0.9511172835335738
268.66745600002815,484.2662304260069,426.3114782755283,0.32391778393151427,-0.0005989882672114126,-0.9460850439923213
267.808892219049,480.0847552489561,426.01323427658,0.33770997570451755,-0.0006441704356137875,-0.9412499972664563
267.00717653235245,475.89150529005735,425.72242463081096,0.35037345590068464,-0.0006857426094364851,-0.936609828667885
266.2562331563289,471.68833106217244,425.4393064899813,0.3620430742523723,-0.0007241274348123332,-0.932161084805276
265.55111973764247,467.4766826202572,425.16407916504,0.3728291469791239,-0.0007596712067228526,-0.9278996982769615
264.887758679267,463.25776030076247,424.89690151198016,0.3828231684773227,-0.0007926615707988912,-0.9238212994755088
264.26272313916905,459.03246730929294,424.6378943750857,0.39210224016306894,-0.0008233413285107273,-0.9199212767232638
263.67311670676503,454.8015900057915,424.3871561009859,0.4007317739796788,-0.0008519167728472506,-0.9161950226676151
263.116458967724,450.5657756376969,424.1447639419955,0.4087678948198718,-0.0008785651822684825,-0.9126379546609655
262.5906052878027,446.32554666722365,423.91077734451335,0.4162591686394534,-0.0009034401979437475,-0.9092455599668331
